# .PCD v0.7 - Point Cloud Data file format
VERSION 0.7
FIELDS x y z intensity ring
SIZE 4 4 4 4 2
TYPE F F F F U
COUNT 1 1 1 1 1
WIDTH 1270
HEIGHT 1
VIEWPOINT 0 0 0 1 0 0 0
POINTS 1270
DATA ascii
-2.934006 1.3969347 -0.28430203 38 5
-3.6178653 1.7225327 0.77888238 61 13
-2.915688 1.3888383 -0.1692545 63 6
-3.6186683 1.7244658 0.92544866 58 14
-3.0992646 1.4776083 -0.059931565 74 7
-3.6337895 1.7332284 1.0787579 65 15
-2.2844148 1.0935282 -0.67862362 16 0
-3.1005464 1.4842027 0.060001373 66 8
-2.9123173 1.3947232 -0.74548781 54 1
-3.0602274 1.4662148 0.1778376 34 9
-2.9264357 1.4027413 -0.63081461 59 2
-3.2372952 1.5524409 0.3141093 3 10
-2.933327 1.4073031 -0.51529521 63 3
-3.6010208 1.7276381 0.49040228 58 11
-3.5845766 1.7212882 0.62980521 71 12
-2.9344995 1.4097562 -0.28482497 50 5
-3.5991406 1.7298292 0.77621108 63 13
-2.9195786 1.4038424 -0.16977786 62 6
-3.5965183 1.7301143 0.92139953 60 14
-3.088681 1.4858179 -0.059826851 70 7
-3.6033471 1.7341738 1.0715109 65 15
-2.8946543 1.3980838 -0.86134982 72 0
-3.0950861 1.4955562 0.060001373 63 8
-2.9282396 1.415566 -0.75088662 58 1
-3.0640817 1.4812346 0.17836095 34 9
-2.9126847 1.4086736 -0.62890649 55 2
-3.545716 1.7155926 0.34461379 37 10
-2.9319522 1.4192557 -0.51592094 61 3
-3.5803716 1.7339033 0.4884524 25 11
-3.5661023 1.7277613 0.62761515 71 12
-2.9259746 1.4182535 -0.28447634 50 5
-3.5754158 1.7338148 0.7723949 67 13
-2.9272389 1.4201275 -0.17051056 65 6
-3.5764322 1.7358509 0.91780037 57 14
-3.0906718 1.5000831 -0.059966467 71 7
-3.5694664 1.7332398 1.0632287 63 15
-2.9088593 1.4174883 -0.86704385 100 0
-3.0901096 1.5058117 0.060001373 66 8
-2.9270327 1.4269766 -0.75178647 78 1
-3.0714583 1.49805 0.17909366 33 9
-2.9253941 1.4274416 -0.63272268 58 2
-3.5468674 1.7314552 0.34531105 60 10
-2.9219046 1.4263704 -0.51498228 57 3
-3.5424945 1.7300861 0.48406506 23 11
-3.5458522 1.7332591 0.62511224 66 12
-2.9317455 1.4337096 -0.28552222 47 5
-3.5273185 1.7249624 0.76323599 65 13
-2.9225135 1.429827 -0.17051056 63 6
-3.5636547 1.7442743 0.91600066 60 14
-3.0997841 1.517898 -0.060245708 78 7
-3.5529857 1.7405889 1.0601228 61 15
-2.9058766 1.427979 -0.86756152 88 0
-3.0920126 1.5201181 0.060140993 63 8
-2.9150388 1.4337448 -0.74998683 78 1
-3.0662103 1.5087622 0.17909366 32 9
-2.9294519 1.4414687 -0.63463074 57 2
-3.5142932 1.7300081 0.34269637 25 10
-2.91868 1.437434 -0.51529521 46 3
-3.5204077 1.7345451 0.48187143 47 11
-3.522063 1.7368897 0.62198347 66 12
-2.9323354 1.4460682 -0.28604513 46 5
-3.5142331 1.73379 0.76170951 61 13
-2.9031768 1.4329479 -0.16967319 57 6
-3.5365767 1.7463496 0.91060191 61 14
-3.0908816 1.526937 -0.060175899 72 7
-3.5295694 1.7444211 1.0549464 63 15
-2.9181826 1.4466944 -0.87273788 88 0
-3.0938537 1.5344555 0.060280614 65 8
-2.9152536 1.4465102 -0.75133651 76 1
-3.0555582 1.5167922 0.17877965 34 9
-2.929678 1.4543047 -0.63577563 55 2
-2.9960957 1.4879255 0.292669 4 10
-2.9295659 1.4555237 -0.51811105 33 3
-3.498333 1.7388709 0.47967777 62 11
-3.4912188 1.7368546 0.61760336 67 12
-2.9397569 1.4625067 -0.28726533 42 5
-3.4888263 1.7364241 0.75751179 61 13
-2.9088843 1.4484154 -0.17030121 61 6
-3.4868519 1.7369602 0.89935428 58 14
-3.0980608 1.5439606 -0.06042023 74 7
-3.5096273 1.7498361 1.0508054 65 15
-2.9165707 1.4585994 -0.87377316 91 0
-3.0920548 1.5470359 0.060350422 63 8
-2.9258702 1.464528 -0.7553857 78 1
-3.0591745 1.5319195 0.17930301 33 9
-2.9263394 1.4654006 -0.63615721 56 2
-3.4558148 1.7312974 0.33816427 33 10
-2.9385951 1.472822 -0.52061397 32 3
-3.4656248 1.7377245 0.47602168 61 11
-3.4657137 1.7392844 0.61416179 66 12
-2.9381952 1.4745468 -0.28761396 47 5
-3.4651988 1.7397821 0.75369561 59 13
-2.9234433 1.4684211 -0.17145261 62 6
-3.4633551 1.7403711 0.89485526 58 14
-3.0855057 1.5511736 -0.060280614 74 7
-3.4724326 1.7464511 1.0414879 67 15
-2.9080119 1.4670311 -0.87273788 91 0
-3.0937765 1.5614238 0.060490038 65 8
-2.9311779 1.4800016 -0.75808507 81 1
-3.0645051 1.547992 0.17993104 32 9
-2.9282157 1.4791473 -0.63768369 56 2
-3.431968 1.7343637 0.33642116 38 10
-2.9369626 1.4848526 -0.5212397 23 3
-3.4524517 1.7462283 0.47504675 56 11
-3.438473 1.7406645 0.61040735 66 12
-2.9365859 1.4865931 -0.28796256 52 5
-3.4468441 1.745659 0.75102425 60 13
-2.9182999 1.478617 -0.17145261 60 6
-3.4537823 1.7506878 0.89395547 61 14
-3.08899 1.5664558 -0.060455136 70 7
-3.4439185 1.7471992 1.0347586 68 15
-2.9134624 1.4819216 -0.87584364 95 0
-3.0814526 1.568047 0.060350422 65 8
-2.934937 1.4941342 -0.76033455 84 1
-3.0682533 1.5626779 0.1804544 34 9
-2.9320416 1.4933046 -0.63959181 58 2
-3.4066706 1.7357855 0.33450374 42 10
-2.9408219 1.4990693 -0.52280408 17 3
-3.4218843 1.7450411 0.47163439 15 11
-3.4256437 1.7484661 0.60915589 64 12
-2.9316397 1.4963239 -0.28796256 55 5
-3.4148092 1.7436864 0.74529999 61 13
-2.9151587 1.4891949 -0.17155728 57 6
-3.435811 1.7559237 0.8908062 63 14
-3.0909002 1.5803322 -0.060594756 71 7
-3.4174669 1.7480532 1.0285469 65 15
-2.9220223 1.4991372 -0.8799848 88 0
-3.0866354 1.584272 0.060559854 65 8
-2.9210358 1.4999192 -0.75808507 78 1
-3.0592263 1.5715542 0.18024506 37 9
-2.9337959 1.5071194 -0.64111823 55 2
-3.3917305 1.7431118 0.33363217 48 10
-2.9461117 1.5147451 -0.52468127 12 3
-3.3839972 1.7406321 0.4672471 20 11
-3.4054694 1.7531791 0.60665292 66 12
-2.9387987 1.5129311 -0.28918275 53 5
-3.3947384 1.7484053 0.74224705 59 13
-2.9063919 1.497532 -0.17134793 57 6
-3.4019468 1.7536194 0.88360775 63 14
-3.1013606 1.5993608 -0.060908899 71 7
-3.4079101 1.7582003 1.0275117 68 15
-2.933929 1.5182062 -0.88516116 70 0
-3.0917411 1.6005528 0.060769279 63 8
-2.9244344 1.5145875 -0.76033455 58 1
-3.0537219 1.5822234 0.18024506 37 9
-2.9337468 1.5200608 -0.64226311 56 2
-3.376781 1.7503563 0.3327606 60 10
-2.9390528 1.5241106 -0.52436841 18 3
-3.3549936 1.7405498 0.46407849 13 11
-3.3765378 1.7532229 0.60258561 67 12
-2.9564862 1.5351167 -0.2914488 72 5
-3.367708 1.7493844 0.73766762 58 13
-2.9188695 1.5168775 -0.17239466 57 6
-3.3715978 1.7528996 0.87730908 60 14
-3.0993071 1.6120224 -0.060978711 71 7
-3.3863289 1.7620592 1.0228529 70 15
-2.926899 1.5275447 -0.88464355 62 0
-3.096771 1.6168884 0.060978711 63 8
-2.9364023 1.5338097 -0.76483357 54 1
-3.0588014 1.5984226 0.18087308 37 9
-2.9266832 1.5293822 -0.64188147 55 2
-3.3512282 1.7519792 0.33084321 62 10
-2.9512184 1.543516 -0.52749711 11 3
-3.3541746 1.7550105 0.46480972 70 11
-3.3458977 1.7521688 0.59820545 67 12
-2.9564047 1.5482004 -0.29197174 78 5
-3.3563643 1.7583953 0.73652273 60 13
-2.9117877 1.52613 -0.17228998 56 6
-3.3568292 1.7601335 0.8750596 65 14
-3.0830362 1.6172569 -0.060769279 71 7
-3.3527875 1.7595063 1.0145707 65 15
-2.9181302 1.5359527 -0.88360828 58 0
-3.0911086 1.6276877 0.060978711 63 8
-2.9448237 1.5513158 -0.7684328 54 1
-3.0655718 1.6156086 0.18160579 38 9
-2.9317477 1.545081 -0.64417118 52 2
-3.3257058 1.7534443 0.32892576 63 10
-2.9807575 1.5722396 -0.53375447 2 3
-3.3304713 1.7574439 0.46237233 57 11
-3.3240411 1.7555343 0.59538966 69 12
-2.9368887 1.5510665 -0.29057723 68 5
-3.3206964 1.7545091 0.73003525 63 13
-2.9223342 1.5446855 -0.17323203 57 6
-3.335161 1.7636408 0.87101048 61 14
-3.0915129 1.6354898 -0.061048519 71 7
-3.3227208 1.7585479 1.0073237 64 15
-2.9076321 1.5434116 -0.88205534 53 0
-3.0783429 1.634717 0.060839087 63 8
-2.8671107 1.5231862 -0.74953693 40 1
-3.0704956 1.631923 0.18223381 38 9
-2.8829966 1.53227 -0.63463074 40 2
-3.2949359 1.7519484 0.32648543 55 10
-2.9299073 1.5585151 -0.52561986 1 3
-3.3102973 1.7615983 0.4604224 62 11
-3.3039448 1.7596979 0.59288669 72 12
-2.9455247 1.5688015 -0.29197174 78 5
-3.2937598 1.7550114 0.72545588 61 13
-2.9133999 1.5529975 -0.17302269 55 6
-3.315228 1.7679362 0.86741126 63 14
-3.0928421 1.6500372 -0.061188139 71 7
-3.3063364 1.764677 1.0042179 63 15
-2.8068485 1.5024961 -0.85306764 60 0
-3.083195 1.6511168 0.061048519 63 8
-2.7965016 1.4982144 -0.73244059 56 1
-3.0665402 1.6435753 0.18233849 38 9
-2.8170664 1.5098647 -0.62127411 52 2
-3.2431471 1.7389601 0.32195333 31 10
-2.8165228 1.5108391 -0.50622195 1 3
-3.1082239 1.668012 0.43312368 23 11
-3.2838597 1.7637427 0.59038377 72 12
-2.8645551 1.5385364 -0.28447634 51 5
-3.2651315 1.754418 0.72049481 65 13
-2.9097204 1.5641032 -0.17312735 56 6
-3.3004549 1.7748829 0.86516178 63 14
-3.0976298 1.6665068 -0.061397567 70 7
-3.2899499 1.7707144 1.0011121 64 15
-2.7879863 1.5049443 -0.84892654 63 0
-3.0950081 1.671371 0.061397567 63 8
-2.7843969 1.5042613 -0.73064101 56 1
-3.0572705 1.6523705 0.18212914 41 9
-2.7945075 1.5103544 -0.61745793 57 2
-3.1809735 1.719946 0.31637534 11 10
-2.8077574 1.5187812 -0.50559622 1 3
-3.2595096 1.7638808 0.45506018 61 11
-3.2533658 1.7620244 0.5860036 64 12
-2.8381441 1.5371401 -0.2823846 52 5
-3.2469041 1.7592578 0.71782345 60 13
-2.9200459 1.5828167 -0.1740694 55 6
-3.2599781 1.7678138 0.85616374 65 14
-3.0882783 1.6754024 -0.061327755 70 7
-3.2701657 1.7748157 0.99697101 67 15
-2.7742324 1.5100491 -0.84633833 62 0
-3.0926678 1.6840764 0.061467376 63 8
-2.7774174 1.5130398 -0.73019111 60 1
-3.0622971 1.6682324 0.18275717 41 9
-2.7702558 1.5097654 -0.61326015 60 2
-3.0839882 1.681444 0.30731115 10 10
-2.8163118 1.5361407 -0.5080992 1 3
-3.2533326 1.7752479 0.45506018 66 11
-3.2301664 1.7633375 0.58287489 64 12
-2.8187721 1.5393981 -0.28099012 51 5
-3.2372975 1.7686983 0.71706021 60 13
-2.9197612 1.5958731 -0.17438343 56 6
-3.2366891 1.7698331 0.85166472 63 14
-3.0844603 1.6865938 -0.061362665 68 7
-3.2473137 1.776379 0.99179465 65 15
-2.7553961 1.5122873 -0.84219724 61 0
-3.0905724 1.6962472 0.061537188 60 8
-2.780926 1.5269308 -0.73244059 68 1
-3.0704596 1.6866044 0.18359455 43 9
-2.7632484 1.5184802 -0.6128785 63 2
-3.1304784 1.7209944 0.3125405 11 10
-2.8458233 1.5645039 -0.51435655 1 3
-3.2230761 1.7726339 0.45164782 63 11
-3.2101469 1.7669827 0.58037198 63 12
-2.7889473 1.5357733 -0.27854973 52 5
-3.2176564 1.771848 0.71400726 64 13
-2.9319465 1.6151839 -0.17543015 56 6
-3.2239752 1.7767944 0.84986508 66 14
-3.0873098 1.702178 -0.061537188 67 7
-3.2157197 1.7737073 0.98403007 68 15
-2.7402232 1.5158056 -0.83909136 62 0
-3.1371217 1.7360725 0.062584333 65 8
-2.7619398 1.5290786 -0.72884142 57 1
-3.0680482 1.6992466 0.18380389 45 9
-2.7685025 1.5333425 -0.61516827 78 2
-3.0010188 1.6628066 0.30016437 4 10
-3.1995089 1.7742461 0.44921044 60 11
-3.1935961 1.772426 0.57849473 64 12
-2.8099704 1.5595161 -0.28116441 78 5
-3.1839893 1.7678204 0.70790142 60 13
-2.9280365 1.6263782 -0.17553481 55 6
-3.2041259 1.780465 0.84626585 66 14
-3.198451 1.7780412 -0.063875809 96 7
-3.1993785 1.7792886 0.98092425 68 15
-2.7382896 1.5272437 -0.84012663 61 0
-3.1834304 1.7762432 0.063631475 75 8
-2.7412713 1.5301613 -0.7247923 56 1
-3.0917428 1.7265002 0.18558332 52 9
-2.7699895 1.5468258 -0.61669469 68 2
-3.0769463 1.7189429 0.308357 10 10
-3.1551776 1.7640914 0.44384819 37 11
-3.177047 1.7777746 0.57661748 64 12
-2.7940779 1.5634772 -0.28011855 85 5
-3.1675203 1.7731698 0.70561171 61 13
-2.9205987 1.635614 -0.17543015 56 6
-3.180891 1.7821131 0.84176683 65 14
-3.1730371 1.7784406 -0.063491859 86 7
-3.1796672 1.7828871 0.9767831 68 15
-2.7228386 1.5311116 -0.83702081 60 0
-3.1597822 1.7775403 0.063282423 77 8
-2.7325168 1.5378094 -0.72389251 55 1
-3.1556225 1.7759254 0.18977019 65 9
-2.7577305 1.5526329 -0.61516827 60 2
-3.1351583 1.7658498 0.31480655 17 10
-3.1403542 1.7702203 0.44262949 65 11
-3.1470454 1.7747159 0.57223737 64 12
-2.7886031 1.573221 -0.28011855 63 5
-3.1527624 1.7793918 0.70370364 64 13
-2.9235678 1.6507081 -0.17595351 53 6
-3.1478128 1.7773217 0.83456844 63 14
-3.1479695 1.7781347 -0.0631079 83 7
-3.1602826 1.7858183 0.972642 65 15
-2.7177463 1.5401325 -0.83702081 66 0
-3.1451728 1.7830771 0.0631079 71 8
-2.7375727 1.5526307 -0.72659194 65 1
-3.1410291 1.7814535 0.18924683 64 9
-3.1327505 1.7782037 0.31515515 51 10
-3.1310146 1.7786635 0.44214204 62 11
-3.1239686 1.775382 0.56910866 66 12
-2.7695143 1.5745817 -0.27872407 46 5
-3.1366055 1.7840126 0.70141387 65 13
-2.9302289 1.6673082 -0.17668621 50 6
-3.1266577 1.7790768 0.83051926 62 14
-3.1177254 1.7747145 -0.062619232 77 7
-3.1358771 1.7857718 0.96694797 67 15
-2.6941707 1.5385982 -0.83132678 72 0
-3.114934 1.7796094 0.062619232 71 8
-2.7341006 1.5626673 -0.72704178 63 1
-3.1191874 1.7834847 0.1883048 61 9
-2.7405548 1.5669907 -0.61364174 2 2
-3.1043541 1.7757215 0.3128891 60 10
-3.1095941 1.7801605 0.43994835 47 11
-3.0988982 1.7754738 0.56566709 68 12
-2.7711926 1.5877192 -0.2794213 73 5
-3.1068263 1.7807363 0.69607127 64 13
-2.9316142 1.6809901 -0.17710489 51 6
-3.1136672 1.7861015 0.82871968 63 14
-3.104574 1.7816055 -0.062479615 74 7
-3.1061692 1.7832417 0.95970106 67 15
-2.6971552 1.5528121 -0.833915 76 0
-3.0896413 1.7794943 0.062235285 67 8
-3.0627623 1.7654359 0.18526931 52 9
-2.7469752 1.58341 -0.6163131 25 2
-3.0653427 1.7676373 0.3095772 22 10
-3.089607 1.7830656 0.43799844 50 11
-3.0858395 1.7823284 0.56441563 68 12
-2.7483807 1.5874178 -0.27767819 68 5
-3.0733936 1.7758541 0.68996537 65 13
-2.9378326 1.69821 -0.1778376 52 6
-3.0989785 1.7920818 0.8264702 63 14
-3.0810273 1.7824175 -0.062130567 75 7
-3.0932376 1.7902027 0.95763052 63 15
-2.6917183 1.5622176 -0.833915 58 0
-3.062659 1.7782193 0.06181642 67 8
-2.7197547 1.5797586 -0.72614199 42 1
-3.0548542 1.7751129 0.18516463 65 9
-2.7465236 1.5959483 -0.61745793 82 2
-3.0591538 1.7783266 0.3095772 35 10
-2.7834132 1.6186839 -0.50997645 1 3
-3.0644896 1.7828597 0.43531734 62 11
-3.0710645 1.7881187 0.56285131 71 12
-2.7514322 1.6020137 -0.27854973 72 5
-3.0569963 1.7806432 0.68767565 66 13
-2.9301612 1.7074491 -0.17773293 58 6
-3.0758688 1.7930732 0.82197118 65 14
-3.0713315 1.7911475 -0.062060758 75 7
-3.0802953 1.7970953 0.95555997 61 15
-2.7162623 1.5891644 -0.84323245 68 0
-2.9943042 1.752535 0.060559854 55 8
-2.7192688 1.5921967 -0.72749174 60 1
-3.0400217 1.7807187 0.18464127 108 9
-2.7477117 1.6094955 -0.6189844 93 2
-3.0615232 1.7940301 0.31044877 68 10
-2.8629527 1.6783406 -0.52561986 1 3
-3.0428362 1.7845079 0.43312368 70 11
-3.0409532 1.7848293 0.55847108 71 12
-2.7441051 1.6105999 -0.27837545 48 5
-3.0456836 1.7883215 0.68653083 69 13
-2.939683 1.7267704 -0.17867498 71 6
-3.0494292 1.7919523 0.81657231 67 14
-3.0357544 1.7846292 -0.061467376 71 7
-3.0606818 1.8000014 0.95141882 65 15
-2.6973865 1.5907847 -0.83909136 45 0
-2.9795568 1.7578957 0.060385328 71 8
-2.7287984 1.6105939 -0.7315408 67 1
-3.0303481 1.7892879 0.18443193 84 9
-2.7319336 1.6130873 -0.61669469 63 2
-3.0243638 1.7864662 0.30731115 68 10
-3.0297539 1.7910771 0.43214872 68 11
-3.0160029 1.7843698 0.55502951 70 12
-2.795053 1.6536484 -0.28412771 32 5
-3.0275962 1.7919413 0.68385947 66 13
-2.9370744 1.7390566 -0.17888431 57 6
-3.029742 1.7946407 0.81297308 67 14
-2.936609 1.7401655 -0.059582517 67 7
-3.0377622 1.800823 0.94624245 67 15
-2.70012 1.6051265 -0.84167957 93 0
-2.9888709 1.7774848 0.06069947 87 8
-2.728184 1.6230985 -0.73289055 59 1
-3.0172186 1.7957691 0.18401325 72 9
-2.7296603 1.6246219 -0.61745793 59 2
-2.9992781 1.7858002 0.30539373 63 10
-3.0030196 1.7894483 0.42922387 32 11
-2.9995763 1.7888156 0.55315232 70 12
-2.8217764 1.6827835 -0.28743961 61 5
-3.0010908 1.7904285 0.67928004 64 13
-2.9378457 1.7533933 -0.17930301 52 6
-3.0150931 1.8002105 0.8107236 68 14
-2.9202161 1.7442532 -0.059373088 78 7
-3.0065818 1.7965527 0.93847787 68 15
-2.6994722 1.6175208 -0.84323245 81 0
-2.9877934 1.7909915 0.060804185 100 8
-2.7208304 1.6316096 -0.73244059 57 1
-3.0023687 1.8011531 0.18348989 60 9
-2.72734 1.6361605 -0.61822122 59 2
-2.9879012 1.7931832 0.30487078 60 10
-2.9661238 1.7815219 0.42483655 26 11
-2.988235 1.7962221 0.55221373 71 12
-2.8056397 1.6864645 -0.28639376 71 5
-2.9779978 1.790776 0.67546391 65 13
-2.8974786 1.7430465 -0.17720957 71 6
-2.9954336 1.8026848 0.80712438 71 14
-2.9226754 1.7595931 -0.059547611 70 7
-2.9936728 1.8030499 0.93640739 75 15
-2.683888 1.6209409 -0.84012663 73 0
-2.969543 1.7941713 0.060559854 81 8
-2.7101152 1.6380732 -0.73109096 60 1
-2.9823904 1.8033541 0.1826525 59 9
-2.7316923 1.6517651 -0.62051088 63 2
-2.9730997 1.7984459 0.30399922 58 10
-2.9598866 1.7918657 0.42483655 42 11
-2.9684308 1.7984533 0.54971075 67 12
-2.8014398 1.6972802 -0.28656808 57 5
-2.9566174 1.7920027 0.67202932 63 13
-2.8725905 1.7417586 -0.17605817 70 6
-2.9757934 1.8050448 0.80352521 72 14
-2.9695115 1.8019441 -0.060629662 102 7
-2.9691961 1.8024609 0.93071336 73 15
-2.698015 1.6423544 -0.84633833 65 0
-2.9547222 1.7993257 0.060385328 78 8
-2.7160306 1.6546198 -0.73424023 57 1
-2.9487891 1.797124 0.18097776 58 9
-2.72088 1.6582259 -0.61936599 57 2
-2.948091 1.7974043 0.30208179 60 10
-2.9570034 1.8042541 0.42532405 76 11
-2.9435902 1.7974792 0.54626918 63 12
-2.8448107 1.7371602 -0.29162312 83 5
-2.9453187 1.7992413 0.67088449 64 13
-2.8903522 1.7663562 -0.17752358 70 6
-2.9445343 1.8001747 0.79677659 67 14
-2.9478505 1.8029079 -0.060315516 100 7
-2.9529989 1.806765 0.92760748 70 15
-2.6889722 1.6497418 -0.84530306 66 0
-2.9313807 1.7991678 0.060036276 71 8
-2.721863 1.6712279 -0.73738956 56 1
-2.9288831 1.7990437 0.18014038 60 9
-2.718421 1.6697689 -0.62012929 57 2
-2.9282193 1.7993387 0.30068728 64 10
-2.9337778 1.8041663 0.42288667 70 11
-2.9137454 1.793249 0.54188907 62 12
-2.825155 1.7387265 -0.29022861 65 5
-2.932333 1.8053942 0.66935802 65 13
-2.9215813 1.7994781 -0.17982636 127 6
-2.9299376 1.8053303 0.79452711 71 14
-2.9091959 1.7932503 -0.059652328 90 7
-2.9351637 1.8099642 0.92398405 68 15
-2.6785569 1.6556027 -0.84375012 67 0
-2.9117918 1.8004655 0.059757043 68 8
-2.7245924 1.6853708 -0.73963904 57 1
-2.9127109 1.8024403 0.17951234 60 9
-2.7228856 1.6849728 -0.62241894 57 2
-2.9052958 1.7985522 0.29894418 61 10
-2.9109037 1.8034306 0.42044926 68 11
-2.8943522 1.7945735 0.53938609 62 12
-2.8600132 1.7732825 -0.29441211 100 5
-2.9096458 1.8047599 0.66554183 66 13
-2.9037185 1.8017851 -0.17909366 100 6
-2.9140007 1.8088698 0.79182774 68 14
-2.8964379 1.798668 -0.059512705 82 7
-2.9061713 1.8054153 0.91673708 69 15
-2.6842399 1.672092 -0.8473736 76 0
-2.8868208 1.798985 0.059373088 66 8
-2.7170389 1.693841 -0.73918921 65 1
-2.9030123 1.8104821 0.17930301 61 9
-2.7652972 1.7245952 -0.63348591 74 2
-2.8854771 1.8002456 0.29754972 65 10
-2.8961718 1.8083239 0.41923055 66 11
-2.8847194 1.8025728 0.53876036 61 12
-2.865633 1.7906463 -0.29563227 113 5
-2.8833516 1.8024178 0.6609624 68 13
-2.8770909 1.7992017 -0.1778376 90 6
-2.9010603 1.8148963 0.7900281 71 14
-2.8833613 1.8045242 -0.059373088 78 7
-2.891665 1.8104224 0.91414887 67 15
-2.6931121 1.690696 -0.8520323 72 0
-2.863589 1.7984157 0.05902404 67 8
-2.7045095 1.6991674 -0.73738956 82 1
-2.874692 1.806788 0.17794226 66 9
-2.8340592 1.7812498 -0.65065867 47 2
-2.8724287 1.806065 0.29685244 64 10
-2.8680007 1.804678 0.416062 63 11
-2.8750665 1.8105261 0.53813463 62 12
-2.8509355 1.79533 -0.29476073 100 5
-2.8571093 1.7999133 0.65638298 66 13
-2.8538957 1.7985857 -0.17679088 77 6
-2.8765743 1.8135799 0.78507918 59 14
-2.8668969 1.8081768 -0.059163656 78 7
-2.878792 1.8163826 0.91207838 64 15
-2.7018871 1.7093821 -0.85669106 70 0
-2.8556042 1.8073312 0.058989134 68 8
-2.7100871 1.7158949 -0.74053884 57 1
-2.8548694 1.8082619 0.17710489 66 9
-2.7366045 1.7333534 -0.62966973 68 2
-2.8543253 1.8086165 0.29563227 66 10
-2.8549778 1.8104259 0.41508701 68 11
-2.8553865 1.8120829 0.53563172 63 12
-2.8311934 1.7967296 -0.29336622 100 5
-2.8491514 1.8088235 0.65600139 72 13
-2.8324261 1.7988998 -0.17584883 73 6
-2.8537786 1.8131589 0.78058016 59 14
-2.8420031 1.8063747 -0.058779709 75 7
-2.8626528 1.8202012 0.9089725 63 15
-2.8034146 1.7873468 -0.89085519 81 0
-2.8391623 1.8108363 0.058779709 71 8
-2.7205093 1.7358266 -0.74503791 54 1
-2.8384392 1.8117683 0.17647687 64 9
-2.7272277 1.7407823 -0.62890649 74 2
-2.8328819 1.8089178 0.29406345 64 10
-2.8369312 1.8128986 0.41338086 66 11
-2.8290737 1.8092676 0.53187722 67 12
-2.8114765 1.7980137 -0.29197174 93 5
-2.8279359 1.8092364 0.65256679 68 13
-2.819401 1.8044686 -0.17543015 76 6
-2.837585 1.8168048 0.77788073 57 14
-2.8137896 1.8022629 -0.058325943 79 7
-2.8367631 1.817675 0.90276086 65 15
-2.7809048 1.7866802 -0.88567883 73 0
-2.8176842 1.811005 0.058465563 77 8
-2.6964033 1.7337185 -0.740089 74 1
-2.8253779 1.817344 0.17605817 66 9
-2.7326925 1.7577266 -0.63157779 54 2
-2.8064444 1.805858 0.29197174 65 10
-2.8255794 1.8195655 0.41264963 68 11
-2.8061366 1.8084311 0.52874857 70 12
-2.7901106 1.7981032 -0.29040295 77 5
-2.8051031 1.808458 0.6487506 68 13
-2.7996573 1.805639 -0.17459276 73 6
-2.8214002 1.8203603 0.77518129 60 14
-2.7957208 1.8044822 -0.058081608 70 7
-2.8141716 1.8170871 0.8975845 67 15
-2.6887035 1.7407321 -0.858244 57 0
-2.7878482 1.8056102 0.057976898 67 8
-2.6886988 1.7420611 -0.73963904 70 1
-2.805609 1.8185048 0.17522079 66 9
-2.7413671 1.7768652 -0.63501233 74 2
-2.7900934 1.8091396 0.29092586 64 10
-2.7958977 1.8142897 0.4092373 71 11
-2.7898669 1.8117605 0.52687138 66 12
-2.7721202 1.8002356 -0.28918275 70 5
-2.7839563 1.8086128 0.64531606 72 13
-2.7799401 1.8066938 -0.17375539 76 6
-2.8052266 1.8238239 0.77248192 60 14
-2.787729 1.81314 -0.058046706 75 7
-2.7997153 1.8216313 0.89499629 68 15
-2.6599593 1.7353283 -0.85099703 100 0
-2.7765045 1.8120519 0.05787218 64 8
-2.7136049 1.7716775 -0.74818724 59 1
-2.7858667 1.8195499 0.17438343 59 9
-2.7318604 1.7842765 -0.63424915 72 2
-2.778758 1.815598 0.29040295 68 10
-2.772933 1.8131742 0.40679988 71 11
-2.7868314 1.8236512 0.52749711 67 12
-2.7591507 1.8055375 -0.2884855 76 5
-2.7677705 1.811868 0.64302635 69 13
-2.7535665 1.8032562 -0.17249933 73 6
-2.7874322 1.8261296 0.76933259 64 14
-2.7713475 1.8162832 -0.057837274 75 7
-2.7917237 1.8303341 0.89447862 72 15
-2.6506572 1.7424804 -0.84996176 91 0
-2.7651494 1.8184371 0.057767466 69 8
-2.6927516 1.7714996 -0.74413806 70 1
-2.7597947 1.8156058 0.17312735 59 9
-2.7370958 1.8013562 -0.63692045 87 2
-2.7657464 1.8209047 0.28970569 66 10
-2.7566416 1.8162889 0.40533748 70 11
-2.7576778 1.817663 0.52311689 70 12
-2.742851 1.8085771 -0.28743961 76 5
-2.754874 1.8171936 0.64149988 72 13
-2.743921 1.8106568 -0.17228998 80 6
-2.7582724 1.8208181 0.76303399 64 14
-2.7486207 1.8144468 -0.057488225 72 7
-2.7775784 1.8342587 0.89189047 68 15
-2.6816018 1.7762594 -0.86186743 80 0
-2.7541032 1.8242832 0.057662752 73 8
-2.6852379 1.7793432 -0.74368823 82 1
-2.7434525 1.8186065 0.17249933 57 9
-2.72261 1.8054744 -0.63501233 73 2
-2.7460911 1.8217367 0.28831118 68 10
-2.7489493 1.8243228 0.40509373 73 11
-2.7965908 1.856644 -0.41216215 1 4
-2.738152 1.8185351 0.52061397 66 12
-2.7215865 1.8082167 -0.28587085 80 5
-2.7455623 1.8241462 0.64073664 72 13
-2.7279212 1.8131129 -0.17166196 80 6
-2.7424824 1.8234811 0.76033455 67 14
-2.7222905 1.8107398 -0.057069372 72 7
-2.7486422 1.8289608 0.88464355 70 15
-2.6660545 1.7787092 -0.85876161 60 0
-2.7227688 1.817235 0.057139181 67 8
-2.6935971 1.7984438 -0.74773729 123 1
-2.7337656 1.8259532 0.17228998 59 9
-2.7100778 1.8101314 -0.63348591 60 2
-2.7201557 1.8175503 0.28621945 66 10
-2.7310133 1.8261833 0.40338758 71 11
-2.7570937 1.8443202 -0.40728739 1 4
-2.7301462 1.826983 0.5203011 71 12
-2.6973608 1.8050433 -0.2839534 82 5
-2.7179694 1.8195212 0.63577563 65 13
-2.718257 1.8204015 -0.17145261 80 6
-2.7280059 1.8276193 0.75808507 68 14
-2.7093081 1.8157787 -0.056929749 81 7
-2.7213817 1.8245586 0.87791425 73 15
-2.6437969 1.7772264 -0.85358524 98 0
-2.7064528 1.820032 0.056929749 69 8
-2.6873031 1.8078355 -0.74773729 90 1
-2.715776 1.8276795 0.17155728 56 9
-2.6939695 1.813004 -0.6311962 52 2
-2.7022259 1.819245 0.28499928 64 10
-2.7130978 1.8279417 0.40168139 75 11
-2.7407627 1.8472755 -0.40582496 1 4
-2.7106493 1.8276671 0.51779813 65 12
-2.6827836 1.8088785 -0.28308186 80 5
-2.6953249 1.8180199 0.63195944 65 13
-2.692019 1.8164725 -0.17019655 73 6
-2.7103033 1.8294988 0.75493574 67 14
-2.6979816 1.8218678 -0.056825034 76 7
-2.7053914 1.827558 0.87480837 70 15
-2.6391764 1.7875283 -0.85410291 97 0
-2.6918058 1.8238599 0.056755226 70 8
-2.6664581 1.8073645 -0.74368823 81 1
-2.6945026 1.8270599 0.17061524 59 9
-2.6843753 1.8201927 -0.63043296 47 2
-2.6892636 1.8241926 0.28430203 65 10
-2.6853495 1.8229065 0.39851278 70 11
-2.7145913 1.8434488 -0.4029001 1 4
-2.7026184 1.8360087 0.51748526 68 12
-2.6665642 1.8115155 -0.28203598 80 5
-2.6873391 1.826313 0.63157779 69 13
-2.6724482 1.8168752 -0.16935916 80 6
-2.691009 1.8301816 0.75133651 64 14
-2.6866465 1.8278995 -0.056720324 78 7
-2.6910102 1.8315557 0.87222022 74 15
-2.6504734 1.8087083 -0.85979694 100 0
-2.6738622 1.8253529 0.056510892 65 8
-2.6408217 1.803473 -0.73828936 73 1
-2.6749153 1.827441 0.16977786 57 9
-2.6585522 1.8162621 -0.62585354 39 2
-2.6779447 1.8301964 0.28377908 68 10
-2.6724157 1.8277863 0.39753783 71 11
-2.6458836 1.8103176 -0.39363801 1 4
-2.6798925 1.8342735 0.51435655 68 12
-2.6569369 1.8185612 -0.28168735 80 5
-2.674468 1.8312459 0.63005131 69 13
-2.6529076 1.8171636 -0.16852181 73 6
-2.6620989 1.8241419 0.74503791 67 14
-2.6588075 1.8225683 -0.056266561 76 7
-2.6798205 1.837661 0.87066728 73 15
-2.6377759 1.8135711 -0.85772634 100 0
-2.6641793 1.8324083 0.056441084 65 8
-2.6312993 1.8104712 -0.73738956 70 1
-2.6586487 1.8299727 0.16914983 57 9
-2.6327899 1.8121737 -0.62127411 24 2
-2.6584125 1.8304929 0.2823846 68 10
-2.6611154 1.8337245 0.3968066 75 11
-2.6509891 1.8274291 -0.3953442 2 4
-2.6523325 1.8290384 0.51028925 71 12
-2.6358109 1.817645 -0.28011855 82 5
-2.6615953 1.8361112 0.62852484 69 13
-2.6432607 1.8241439 -0.16831245 76 6
-2.6525075 1.8312089 0.74413806 67 14
-2.6343296 1.8193381 -0.055882607 75 7
-2.6606739 1.8382192 0.86652619 74 15
-2.6107848 1.8084666 -0.85099703 88 0
-2.636399 1.8268912 0.055987321 70 8
-2.6169555 1.8140941 -0.73514003 66 1
-2.652245 1.8392413 0.16914983 60 9
-2.6216085 1.8179959 -0.62012929 21 2
-2.6290874 1.8238629 0.27994424 68 10
-2.6449149 1.8362094 0.3953442 75 11
-2.6250286 1.8230836 -0.39241934 3 4
-2.6394429 1.8337772 0.50903779 72 12
-2.6163599 1.8177401 -0.27872407 82 5
-2.6374369 1.8330652 0.62432706 73 13
-2.627038 1.8265188 -0.16768442 73 6
-2.6365006 1.8337805 0.74143869 67 14
-2.6213965 1.8239549 -0.055742987 72 7
-2.6368005 1.835355 0.86083221 68 15
-2.5933666 1.80983 -0.8473736 86 0
-2.6152487 1.8257805 0.055673175 65 8
-2.6074123 1.8209857 -0.73424023 70 1
-2.6363068 1.8411651 0.16852181 59 9
-2.6120272 1.8248878 -0.61936599 13 2
-2.6194389 1.8307463 0.27959561 73 10
-2.6222219 1.8340542 0.39290681 73 11
-2.6267812 1.8379258 -0.39363801 6 4
-2.623636 1.8357252 0.5071606 66 12
-2.5985734 1.8188639 -0.27750388 87 5
-2.6133313 1.8298742 0.62012929 72 13
-2.609195 1.8276566 -0.16695172 71 6
-2.6268919 1.8407351 0.74053884 67 14
-2.6136966 1.8314888 -0.055708081 76 7
-2.6196263 1.8363267 0.85720873 67 15
-2.5870328 1.8188721 -0.8473736 77 0
-2.6042726 1.8309928 0.055568464 64 8
-2.5854199 1.8184115 -0.72974122 70 1
-2.613529 1.8388635 0.16747507 60 9
-2.6008251 1.8306046 -0.61822122 10 2
-2.6065164 1.8352897 0.27889836 73 10
-2.5982738 1.8301643 0.39022568 70 11
-2.5914633 1.8260449 -0.38925073 8 4
-2.6172128 1.8448715 0.5071606 65 12
-2.5808101 1.8198868 -0.27628368 85 5
-2.5960176 1.8306105 0.61745793 76 13
-2.5867994 1.8247861 -0.165905 71 6
-2.6112201 1.8426949 0.73783946 67 14
-2.5991189 1.8348356 -0.055533558 75 7
-2.6116223 1.8443455 0.85669106 70 15
-2.5715275 1.8207425 -0.84426773 78 0
-2.5897067 1.8342927 0.055393942 67 8
-2.5679262 1.8195386 -0.72659194 74 1
-2.5924289 1.837581 0.16653302 64 9
-2.583528 1.8312719 -0.61554986 7 2
-2.5955403 1.8404661 0.27837545 74 10
-2.5853934 1.8346286 0.38925073 70 11
-2.565649 1.8212901 -0.38632584 10 4
-2.594651 1.8425589 0.5040319 66 12
-2.573137 1.8272809 -0.2761094 80 5
-2.5880113 1.8385243 0.61707634 78 13
-2.5722742 1.8280193 -0.16538164 73 6
-2.5888891 1.840507 0.73334044 64 14
-2.5796616 1.8346255 -0.055254318 72 7
-2.6035943 1.8523304 0.8561734 72 15
-2.5494285 1.8184894 -0.83909136 78 0
-2.5767767 1.8386751 0.055254318 69 8
-2.5615592 1.8284914 -0.72659194 74 1
-2.5762467 1.8396546 0.165905 64 9
-2.5563502 1.8254467 -0.61058879 7 2
-2.5761302 1.8402501 0.27698094 74 10
-2.5805888 1.8447959 0.38949445 73 11
-2.5512025 1.8244613 -0.38510716 12 4
-2.565711 1.8355145 0.49965176 68 12
-2.5553994 1.8281376 -0.2748892 85 5
-2.5799816 1.8464037 0.61669469 76 13
-2.5626297 1.8346618 -0.16517229 76 6
-2.5761111 1.8449945 0.7315408 61 14
-2.5553606 1.830808 -0.054870363 76 7
-2.5861216 1.8535292 0.85254997 75 15
-2.5273771 1.8161044 -0.833915 75 0
-2.5606 1.8406554 0.055044889 69 8
-2.5488322 1.8328708 -0.7247923 74 1
-2.5633242 1.8439708 0.16548631 65 9
-2.5483689 1.8332125 -0.6102072 4 2
-2.5454333 1.8317748 0.27436629 73 10
-2.5628576 1.8456721 0.3877883 71 11
-2.5351546 1.8263935 -0.38364473 16 4
-2.5560832 1.8421488 0.499026 68 12
-2.5292883 1.8235086 -0.27279747 82 5
-2.5512254 1.8393245 0.61135209 76 13
-2.5497303 1.8389229 -0.16475362 76 6
-2.5633335 1.8494149 0.72974122 65 14
-2.5440905 1.8362055 -0.054765653 78 7
-2.5639727 1.8512371 0.8473736 76 15
-2.5191395 1.8242221 -0.83339739 90 0
-2.5363441 1.8366807 0.054660939 73 8
-2.5234807 1.828038 -0.71939349 70 1
-2.5536373 1.8505633 0.16527697 65 9
-2.5257375 1.8310174 -0.60639101 2 2
-2.5338635 1.8375831 0.27384335 74 10
-2.5451517 1.8464473 0.38608211 73 11
-2.5271566 1.8340664 -0.38340098 16 4
-2.5336521 1.8394547 0.49589729 68 12
-2.5164592 1.8276432 -0.27210024 82 5
-2.5301716 1.8382777 0.60791749 78 13
-2.5332792 1.8412101 -0.16412558 80 6
-2.5502336 1.854213 0.72794157 65 14
-2.5376654 1.8450749 -0.054765653 81 7
-2.5496833 1.8544942 0.84478539 82 15
-2.5049522 1.8273124 -0.83080912 75 0
-2.5231338 1.8412501 0.054521319 70 8
-2.4947286 1.8211879 -0.71309483 65 1
-2.5307081 1.8481314 0.16423026 67 9
-2.5256727 1.8444541 -0.60791749 1 2
-2.5209985 1.8417155 0.27314609 78 10
-2.5239446 1.8452193 0.38388845 81 11
-2.5124063 1.8374567 -0.3821823 21 4
-2.528487 1.8498958 0.49621019 72 12
-2.5049205 1.8333241 -0.2715773 80 5
-2.5158184 1.8413001 0.60600942 76 13
-2.5074987 1.8358834 -0.16286951 82 6
-2.5311682 1.8538927 0.72434241 65 14
-2.514755 1.8425446 -0.054416601 78 7
-2.535079 1.8581159 0.84219724 78 15
-2.4888992 1.8296154 -0.82770336 81 0
-2.5086353 1.8441236 0.054346792 69 8
-2.4914958 1.8321948 -0.71399468 74 1
-2.5049355 1.8427517 0.16297418 67 9
-2.5030835 1.8420618 -0.6041013 1 2
-2.509418 1.8473995 0.27262318 70 10
-2.4951108 1.8375382 0.38047612 71 11
-2.4836025 1.8297309 -0.37876993 21 4
-2.5061131 1.8469906 0.49308151 63 12
-2.4952984 1.8396922 -0.27122867 80 5
-2.4995725 1.8435169 0.60371965 52 13
-2.4943242 1.8403184 -0.16245082 82 6
-2.5086772 1.8515843 0.71984333 34 14
-2.50509 1.8489368 -0.054346792 81 7
-2.5145898 1.856627 0.83753842 30 15
-2.4769268 1.8328296 -0.82563275 75 0
-2.4526811 1.8155503 0.053264745 20 8
-2.4760101 1.8334882 -0.71129525 74 1
-2.4041224 1.7809058 0.15679854 18 9
-2.4657323 1.8265449 -0.59646893 1 2
-2.3563313 1.7461396 0.25658652 20 10
-2.3566601 1.747659 0.36024579 23 11
-2.4743326 1.8355913 -0.37828246 5 4
-2.333415 1.7316835 0.46023026 18 12
-2.4767065 1.8380235 -0.26983419 28 5
-2.4843106 1.8443391 0.60143 21 13
-2.4837201 1.8445731 -0.16213681 22 6
-2.4825125 1.8443484 0.71399468 25 14
-2.4732654 1.8381487 -0.053788319 23 7
-2.4944668 1.8545812 0.83287972 29 15
-2.4550254 1.8299189 -0.82045639 75 0
-2.3453336 1.748794 0.051065743 23 8
-2.4617841 1.8362948 -0.70904571 68 1
-2.3402653 1.7462863 0.15303035 24 9
-2.3246758 1.7352852 0.25379753 24 10
-2.3346419 1.7439946 0.35780841 25 11
-2.4567792 1.8358994 -0.3765763 5 4
-2.3241916 1.7374525 0.45960453 22 12
-2.4495304 1.8311496 -0.26756814 25 5
-2.4715683 1.8482966 0.59990352 27 13
-2.4756675 1.8520348 -0.16203214 23 6
-2.4776194 1.8541704 0.71444452 27 14
-2.4668341 1.8467706 -0.053788319 26 7
-2.4756074 1.8540131 0.82873863 28 15
-2.4393537 1.8315179 -0.81735063 76 0
-2.3088353 1.7341522 0.050402552 25 8
-2.444454 1.836682 -0.70589644 64 1
-2.3216877 1.7444394 0.15219298 22 9
-2.3074567 1.7350081 0.25257733 23 10
-2.3126783 1.7401973 0.35537103 25 11
-2.4566994 1.8492398 -0.37755126 6 4
-2.3152609 1.7427745 0.4589788 23 12
-2.444715 1.8408873 -0.26774243 28 5
-2.4509892 1.8462813 0.59646893 48 13
-2.4564261 1.85105 -0.16119476 31 6
-2.4633512 1.8569425 0.71219504 56 14
-2.4543087 1.850126 -0.053648699 26 7
-2.4571066 1.8529067 0.82459748 52 15
-2.4298637 1.8376909 -0.81631529 76 0
-2.3046668 1.7430054 0.050437454 24 8
-2.4212544 1.8318453 -0.70094746 68 1
-2.3060288 1.745301 0.15156494 23 9
-2.3013864 1.7430521 0.25257733 22 10
-2.2989838 1.741863 0.35415235 24 11
-2.4299874 1.8417879 -0.37438264 22 4
-2.306015 1.7484585 0.45835301 22 12
-2.4271629 1.8409811 -0.26652226 68 5
-2.4401603 1.8508396 0.5953241 74 13
-2.4295902 1.8434913 -0.15983403 67 6
-2.4540753 1.8627447 0.71129525 63 14
-2.4414659 1.8538444 -0.053509079 68 7
-2.4506233 1.8614728 0.82459748 74 15
-2.4176085 1.8410572 -0.81424475 81 0
-2.2842529 1.7401332 0.050123312 24 8
-2.4086459 1.8355604 -0.69914788 68 1
-2.2827544 1.7396221 0.15041354 23 9
-2.2908406 1.7470498 0.25205442 24 10
-2.2771089 1.7378342 0.35171497 23 11
-2.4077649 1.8382136 -0.37194526 24 4
-2.2860734 1.7453079 0.45553723 20 12
-2.4178777 1.8466014 -0.26617363 78 5
-2.4212043 1.8498111 0.59227115 75 13
-2.4310746 1.858025 -0.16035739 97 6
-2.425885 1.8547285 0.70499659 72 14
-2.4384818 1.8643595 -0.053578887 100 7
-2.4413681 1.8672414 0.82356226 77 15
-2.3958392 1.8377267 -0.80906838 82 0
-2.284816 1.7525666 0.050262932 25 8
-2.3963616 1.8387926 -0.6973483 68 1
-2.2782521 1.748796 0.15051822 23 9
-2.2736685 1.7465391 0.25083423 24 10
-2.2729077 1.7465855 0.35195872 27 11
-2.3859179 1.8340892 -0.36950788 24 4
-2.2580447 1.7364181 0.45115703 21 12
-2.400363 1.8465263 -0.26495346 91 5
-2.4197252 1.8614211 0.59341598 72 13
-2.4090717 1.853896 -0.15931067 86 6
-2.4166329 1.8603854 0.70409679 72 14
-2.3986881 1.8472379 -0.052845888 83 7
-2.4195313 1.863963 0.81838584 77 15
-2.3744423 1.8338532 -0.80389202 80 0
-2.2581127 1.7446383 0.049809169 23 8
-2.3899281 1.8471464 -0.6973483 68 1
-2.2626538 1.7494074 0.14989018 23 9
-2.2536802 1.7430989 0.24926542 24 10
-2.2620876 1.7508637 0.35122749 24 11
-2.3763621 1.839976 -0.3690204 29 4
-2.2472847 1.7406609 0.45021844 22 12
-2.3784747 1.8422757 -0.26321036 91 5
-2.393038 1.854224 0.58845496 75 13
-2.3962717 1.8573992 -0.15889199 82 6
-2.4070442 1.8664217 0.703197 74 14
-2.3874853 1.8519228 -0.05274117 85 7
-2.397748 1.8605537 0.81320947 78 15
-2.3619273 1.8373858 -0.80182141 83 0
-2.2393837 1.7426851 0.049529929 23 8
-2.3742394 1.8482951 -0.69464886 70 1
-2.2581093 1.7585224 0.14999487 23 9
-2.2444384 1.7485063 0.2489168 24 10
-2.2450032 1.7502058 0.34952128 25 11
-2.3761864 1.853143 -0.36999539 33 4
-2.2396374 1.7472798 0.44990557 21 12
-2.3688877 1.8481158 -0.2628617 87 5
-2.3741691 1.8529029 0.58540201 75 13
-2.3740306 1.8534615 -0.15784526 82 6
-2.3882277 1.8652165 0.69959778 68 14
-2.3810062 1.8602455 -0.05274117 81 7
-2.3851502 1.8641536 0.81113893 76 15
-2.3524573 1.8432368 -0.80078614 82 0
-2.2269917 1.7455571 0.049390312 22 8
-2.353972 1.8457491 -0.69059974 74 1
-2.2425275 1.7589985 0.14936683 24 9
-2.227349 1.7477206 0.24769662 24 10
-2.2232671 1.745772 0.3470839 22 11
-2.3478482 1.8442588 -0.36658302 37 4
-2.2304187 1.7526454 0.44927984 20 12
-2.3561561 1.851449 -0.26216447 91 5
-2.3645999 1.8587525 0.58463877 76 13
-2.3518462 1.8493915 -0.15679854 74 6
-2.3725123 1.8663125 0.69689834 74 14
-2.3697839 1.8648355 -0.052636456 83 7
-2.3816645 1.874858 0.8121742 76 15
-2.3429761 1.8490436 -0.79975086 83 0
-2.2177463 1.7508415 0.049320504 23 8
-2.3413973 1.8491234 -0.6888001 78 1
-2.2144332 1.7494818 0.14790143 25 9
-2.3289423 1.8425893 -0.36463311 40 4
-2.210346 1.7493876 0.446464 23 12
-2.3403046 1.8522439 -0.26111859 82 5
-2.3519404 1.8621209 0.58311236 76 13
-2.3422456 1.8551091 -0.1565892 72 6
-2.3537638 1.8649014 0.69329917 72 14
-2.3491554 1.8619175 -0.052322313 78 7
-2.3629956 1.8735578 0.80803311 75 15
-2.3183601 1.8427856 -0.79353923 86 0
-2.2147515 1.7610613 0.049390312 22 8
-2.3227272 1.847581 -0.68520093 73 1
-2.2051876 1.7547133 0.14769208 24 9
-2.2057409 1.7557825 0.24665076 12 10
-2.2156837 1.7649606 0.34781513 28 11
-2.3178387 1.8469962 -0.36390188 43 4
-2.1949584 1.7497048 0.44458681 22 12
-2.3241544 1.8533555 -0.26007274 82 5
-2.3438914 1.8690946 0.58273071 78 13
-2.32951 1.8582923 -0.15617052 74 6
-2.3441932 1.8706751 0.69239932 74 14
-2.3301396 1.8601252 -0.052043077 76 7
-2.3534214 1.8793843 0.80699778 75 15
-2.2995269 1.8416101 -0.78939813 86 0
-2.192982 1.7562819 0.049041264 23 8
-2.3117018 1.8520218 -0.68385124 76 1
-2.1959319 1.7599021 0.14748274 25 9
-2.1806397 1.7488966 0.24455902 13 10
-2.2079613 1.7714421 0.3475714 11 11
-2.3082807 1.8525913 -0.36341441 45 4
-2.1826761 1.7524085 0.44333532 23 12
-2.3021367 1.8489808 -0.25832963 78 5
-2.3217199 1.8653768 0.57891452 79 13
-2.3257971 1.86932 -0.15637985 74 6
-2.3312469 1.8743697 0.69059974 68 14
-2.3173988 1.8632356 -0.05190346 78 7
-2.3287826 1.8730586 0.80078614 76 15
-2.2930849 1.8496253 -0.78939813 83 0
-2.1740804 1.7542615 0.048762023 24 8
-2.2973161 1.8543621 -0.6816017 78 1
-2.1910207 1.7691936 0.14758742 26 9
-2.182271 1.7627575 0.24543057 4 10
-2.1829278 1.7645477 0.34464651 9 11
-2.3045626 1.8635349 -0.36390188 51 4
-2.170095 1.755428 0.44208387 23 12
-2.2941189 1.8557532 -0.25815532 86 5
-2.299933 1.8611195 0.57509834 82 13
-2.3052864 1.8661174 -0.1554378 76 6
-2.3216605 1.8800437 0.68969995 70 14
-2.3058925 1.8679405 -0.051798742 75 7
-2.3189008 1.8791485 0.79975086 76 15
-2.2776179 1.8503097 -0.78629225 82 0
-2.16484 1.7593175 0.048692215 26 8
-2.2696598 1.8451601 -0.67530304 73 1
-2.1693366 1.7642294 0.1465407 27 9
-2.1606491 1.7577909 0.24368747 20 10
-2.1613607 1.759624 0.34220913 25 11
-2.2857299 1.8615396 -0.36195198 51 4
-2.1608913 1.7604963 0.44145811 22 12
-2.2860827 1.8624908 -0.25798097 84 5
-2.2873352 1.8641752 0.57357186 79 13
-2.2817302 1.860271 -0.15428641 74 6
-2.2999825 1.8758193 0.68520093 74 14
-2.2931602 1.8709217 -0.051659122 68 7
-2.30634 1.8823463 0.79768038 78 15
-2.2651646 1.8533555 -0.78422177 86 0
-2.1540437 1.7630633 0.048587501 24 8
-2.2586815 1.8493677 -0.67395335 66 1
-2.1495659 1.7600257 0.14559864 28 9
-2.1545 1.7653223 0.24368747 24 10
-2.1383197 1.7533125 0.33952799 22 11
-2.2672639 1.85904 -0.36000207 51 4
-2.1489322 1.7626415 0.44020665 24 12
-2.2703259 1.8628765 -0.25693512 82 5
-2.2777789 1.869657 0.57280862 82 13
-2.272136 1.8656889 -0.15407708 74 6
-2.2801945 1.872306 0.68115181 65 14
-2.2730365 1.8670926 -0.05134498 73 7
-2.2941153 1.8850777 0.79560977 78 15
-2.2500594 1.8534871 -0.78111589 83 0
-2.146642 1.7689251 0.048552595 23 8
-2.2510328 1.8556083 -0.67350346 70 1
-2.1344709 1.7595221 0.14497061 24 9
-2.1194327 1.7483677 0.24037553 27 10
-2.1217778 1.7515477 0.33782184 27 11
-2.2549629 1.8614933 -0.35902712 51 4
-2.1247981 1.7546637 0.43645221 23 12
-2.2579918 1.8653194 -0.25623786 78 5
-2.2730799 1.878451 0.57319027 85 13
-2.2628577 1.8706683 -0.15386772 77 6
-2.2604556 1.8686825 0.67710268 70 14
-2.2591271 1.8682481 -0.051170457 75 7
-2.2774317 1.884055 0.79198635 79 15
-2.2320044 1.8510728 -0.7769748 83 0
-2.1315303 1.7683733 0.048343167 27 8
-2.2433672 1.8618182 -0.67305356 66 1
-2.132926 1.7707894 0.14528462 13 9
-2.0982959 1.7426569 0.23863243 27 10
-2.1174846 1.7598431 0.33806559 28 11
-2.245399 1.8668147 -0.35853964 52 4
-2.1171408 1.7608073 0.43613935 25 12
-2.2364752 1.8600568 -0.25449476 78 5
-2.2517459 1.8734221 0.56937408 76 13
-2.253572 1.8756062 -0.15365838 77 6
-2.2599092 1.8815491 0.67890227 70 14
-2.2510552 1.8748428 -0.051135551 78 7
-2.2559996 1.8796269 0.78680992 84 15
-2.2225645 1.8563752 -0.77593952 83 0
-2.1115332 1.7642632 0.048029024 33 8
-2.2263882 1.8608894 -0.66990423 70 1
-2.1160064 1.7692555 0.14455192 21 9
-2.0983131 1.7550838 0.23932965 24 10
-2.1098065 1.7659492 0.33782184 25 11
-2.2327805 1.8695444 -0.35756469 52 4
-2.1124959 1.7694553 0.43645221 28 12
-2.2238593 1.8627349 -0.25379753 82 5
-2.2301447 1.8686612 0.5655579 79 13
-2.2408881 1.8783296 -0.1532397 79 6
-2.2473545 1.8844179 0.67710268 72 14
-2.2399013 1.8788332 -0.051030833 78 7
-2.2494242 1.8874909 0.78680992 84 15
-2.2042439 1.8541738 -0.77179843 82 0
-2.1114819 1.7767738 0.048168644 26 8
-2.2079523 1.8586094 -0.66630501 70 1
-2.1220398 1.7869228 0.1453893 30 9
-2.1013165 1.7701 0.24037553 24 10
-2.1097007 1.778421 0.33879682 27 11
-2.2110653 1.8645296 -0.35512727 54 4
-2.1259353 1.7933763 0.44051951 25 12
-2.2170177 1.8708727 -0.25379753 78 5
-2.2206075 1.8739021 0.56479466 72 13
-2.2144775 1.869392 -0.15187897 82 6
-2.2288525 1.8821921 0.67350346 64 14
-2.2241635 1.8788985 -0.050821409 78 7
-2.2339685 1.8878498 0.7837041 82 15
-2.1974335 1.8622402 -0.77179843 82 0
-2.1250994 1.8009399 0.048622403 26 8
-2.1910458 1.8574842 -0.66315573 68 1
-2.1203592 1.7981948 0.14570332 31 9
-2.1373491 1.8138865 0.24525626 5 10
-2.1095326 1.7909138 0.33977175 25 11
-2.2000046 1.8683811 -0.3543961 58 4
-2.1241786 1.8046231 0.44145811 23 12
-2.2028823 1.8721497 -0.25292596 86 5
-2.2137244 1.8820287 0.56479466 76 13
-2.2045686 1.8749076 -0.15166962 82 6
-2.20858 1.8789845 0.66945434 69 14
-2.2038834 1.8749888 -0.050507262 83 7
-2.2273653 1.8956364 0.7837041 82 15
-2.1821029 1.8623745 -0.76869255 82 0
-2.1260886 1.815209 0.048796929 25 8
-2.1797776 1.8617055 -0.66180599 65 1
-2.1201441 1.8107737 0.14612199 27 9
-2.1279755 1.8187473 0.24490763 6 10
-2.1150234 1.8089552 0.34172165 25 11
-2.1874349 1.870888 -0.35342112 57 4
-2.1238701 1.8171638 0.44270959 23 12
-2.1842244 1.8694634 -0.25153148 76 5
-2.2011762 1.8846371 0.56326818 76 13
-2.1919425 1.8773952 -0.15125093 84 6
-2.2023368 1.8862981 0.66945434 69 14
-2.1882141 1.8748641 -0.050297838 83 7
-2.2060668 1.8908273 0.77852774 84 15
-2.1612623 1.8570106 -0.76351619 80 0
-2.12309 1.8248565 0.048866738 25 8
-2.1721141 1.8676533 -0.66135609 66 1
-2.1338148 1.8347224 0.14748274 25 9
-2.1113605 1.8166975 0.24368747 18 10
-2.1195431 1.8250259 0.34342784 23 11
-2.1752017 1.8729507 -0.35244617 56 4
-2.1223228 1.8280643 0.44364822 25 12
-2.1644285 1.8649913 -0.24996266 84 5
-2.187479 1.8855174 0.56136012 73 13
-2.1857049 1.8846531 -0.15125093 84 6
-2.1901665 1.8885001 0.66765475 66 14
-2.1759276 1.8768857 -0.050158214 81 7
-2.1851583 1.885512 0.77335137 75 15
-2.1492481 1.8591123 -0.76144564 83 0
-2.1140027 1.8292701 0.048796929 25 8
-2.157069 1.8671933 -0.65865672 68 1
-2.1352699 1.8483237 0.1480061 26 9
-2.1083364 1.8262981 0.24403608 24 10
-2.134479 1.850248 0.3468402 23 11
-2.1644788 1.8762529 -0.35171497 53 4
-2.1356504 1.8519162 0.44771552 23 12
-2.1582317 1.8721585 -0.24996266 82 5
-2.1634204 1.8773203 0.5567807 71 13
-2.1719017 1.8853445 -0.15072757 90 6
-2.1780055 1.8906428 0.66585511 73 14
-2.1636522 1.8788465 -0.050018597 83 7
-2.1759768 1.8902142 0.7723161 77 15
-2.1430717 1.8662288 -0.76144564 82 0
-2.1184795 1.8454648 0.049041264 24 8
-2.1361735 1.8615332 -0.6541577 68 1
-2.1306345 1.8567065 0.14811078 29 9
-2.1292977 1.8568505 0.24717368 31 10
-2.1313229 1.8599266 0.34732765 30 11
-2.1492708 1.8755891 -0.35025251 62 4
-2.1354499 1.8641845 0.44896698 30 12
-2.1445093 1.8727517 -0.2490911 86 5
-2.1542261 1.8819009 0.5560174 71 13
-2.1521027 1.8807083 -0.14978553 82 6
-2.1599848 1.8875965 0.66225594 70 14
-2.1694548 1.8965393 -0.050297838 94 7
-2.1638796 1.8923328 0.77024549 73 15
-2.13589 1.8744439 -0.76144564 86 0
-2.1384277 1.8773326 0.049669549 48 8
-2.1260812 1.8671499 -0.65325785 68 1
-2.132494 1.8727816 0.1487388 58 9
-2.1416078 1.8821108 0.24943975 61 10
-2.1465251 1.8877605 0.35098374 78 11
-2.1283109 1.8724009 -0.34805888 59 4
-2.1416242 1.8841134 0.45178279 60 12
-2.1402934 1.8836054 -0.24943975 86 5
-2.144037 1.8875642 0.55525422 71 13
-2.1418676 1.8863177 -0.14957617 95 6
-2.1377678 1.8833696 0.65775687 69 14
-2.1321471 1.878418 -0.049599741 81 7
-2.1536992 1.8980727 0.76921022 75 15
-2.1148579 1.8690953 -0.75626928 86 0
-2.1441774 1.8950077 0.049948789 58 8
-2.118418 1.8728995 -0.65280795 70 1
-2.1379125 1.8907993 0.14957617 53 9
-2.1335335 1.888254 0.24926542 63 10
-2.1447127 1.8988156 0.35171497 91 11
-2.1191177 1.876816 -0.3475714 59 4
-2.1232059 1.8810979 0.44927984 67 12
-2.1187952 1.8778496 -0.24769662 88 5
-2.1318893 1.8894546 0.55372775 71 13
-2.1176667 1.8775103 -0.14832011 77 6
-2.1285946 1.8878623 0.65685707 75 14
-2.1136105 1.8752321 -0.049320504 84 7
-2.132612 1.8927557 0.76403385 79 15
-2.1014321 1.8696772 -0.75368112 91 0
-2.1270936 1.8931738 0.049704451 85 8
-2.1118674 1.8802826 -0.65280795 70 1
-2.1238413 1.8916091 0.14905281 78 9
-2.1094089 1.879414 0.24717368 75 10
-2.1262174 1.8957226 0.34976503 88 11
-2.1066277 1.8789165 -0.34659645 63 4
-2.1122053 1.8845521 0.44834125 73 12
-2.1006632 1.874254 -0.24630213 92 5
-2.1135628 1.8864269 0.5506748 71 13
-2.1230187 1.8955325 -0.14915749 95 6
-2.1190853 1.8926845 0.65595728 71 14
-2.1010871 1.8772693 -0.04918088 81 7
-2.1173496 1.892464 0.76092798 75 15
-2.0848212 1.8679771 -0.75005764 86 0
-2.1040924 1.885906 0.049320504 72 8
-2.0936837 1.8772358 -0.64920872 70 1
-2.1231728 1.9043456 0.14947151 74 9
-2.1087673 1.8920881 0.24787092 78 10
-2.1107247 1.8951756 0.3483026 85 11
-2.1030102 1.8889111 -0.3470839 63 4
-2.1041441 1.890594 0.44802836 67 12
-2.0941074 1.8815758 -0.24630213 92 5
-2.1011245 1.8885436 0.54914832 70 13
-2.0941119 1.8829005 -0.14758742 88 6
-2.1124651 1.9000704 0.65595728 71 14
-2.101954 1.8912797 -0.049355406 88 7
-2.1078594 1.8972582 0.75989276 75 15
-2.0768538 1.8739491 -0.74953997 88 0
-2.0974965 1.8932391 0.049320504 71 8
-2.072654 1.8714733 -0.64470971 70 1
-2.098727 1.8956796 0.14821544 75 9
-2.1021497 1.8994377 0.24787092 79 10
-2.0908451 1.8905492 0.34610897 76 11
-2.0728488 1.8749346 -0.34318411 67 4
-2.1019261 1.9019034 0.44896698 68 12
-2.0845716 1.8862004 -0.24595349 92 5
-2.0857863 1.8879609 0.54685861 71 13
-2.0756824 1.8794744 -0.14675003 86 6
-2.0971539 1.8995832 0.65325785 73 14
-2.0953398 1.898605 -0.049355406 88 7
-2.0983608 1.9020101 0.75885749 73 15
-2.0702999 1.8811873 -0.74953997 91 0
-2.0849562 1.8951685 0.04918088 74 8
-2.0617836 1.8747633 -0.64336002 68 1
-2.0773222 1.8895547 0.14716873 78 9
-2.0925598 1.9040817 0.24752231 76 10
-2.0812976 1.8951632 0.3456215 75 11
-2.0662911 1.8821592 -0.34318411 67 4
-2.0835938 1.8985847 0.446464 68 12
-2.0750299 1.8907812 -0.24560487 92 5
-2.0762818 1.8925853 0.54609537 71 13
-2.0661571 1.8840175 -0.1465407 86 6
-2.0761132 1.8937588 0.64875883 65 14
-2.0724509 1.8910809 -0.048971456 81 7
-2.088855 1.9067186 0.75782222 73 15
-2.0523193 1.8779689 -0.74539888 91 0
-2.0753777 1.899735 0.049111072 71 8
-2.0494781 1.8766848 -0.64156044 66 1
-2.0707142 1.8967941 0.14716873 76 9
-2.0682728 1.8952225 0.24543057 79 10
-2.0790586 1.9064416 0.34635273 81 11
-2.0509315 1.8813087 -0.34172165 69 4
-2.0594881 1.8898195 0.44270959 70 12
-2.0596092 1.8899307 -0.24455902 92 5
-2.0667698 1.897166 0.54533213 73 13
-2.0566261 1.8885161 -0.14633135 86 6
-2.0666199 1.8983577 0.64785904 72 14
-2.0555294 1.8888328 -0.048727117 88 7
-2.0722308 1.9048461 0.75419873 69 15
-2.0329654 1.8733395 -0.74074018 86 0
-2.0628526 1.9015466 0.048971456 71 8
-2.0400493 1.8811853 -0.64066058 66 1
-2.06408 1.9040112 0.14716873 78 9
-2.0528591 1.8943238 0.24438471 79 10
-2.0636408 1.905607 0.34489027 81 11
-2.035603 1.8803746 -0.34025922 70 4
-2.0499773 1.8943158 0.44208387 71 12
-2.0412931 1.886291 -0.24316452 100 5
-2.0486019 1.8937078 0.54227924 73 13
-2.0441558 1.8902596 -0.14591266 84 6
-2.0571196 1.9029135 0.64695925 69 14
-2.0386503 1.8864888 -0.048482787 81 7
-2.0556455 1.9028816 0.75057524 71 15
-2.0249972 1.8791109 -0.74022251 95 0
-2.0415461 1.8951309 0.048622403 74 8
-2.0220468 1.877686 -0.63706136 61 1
-2.0574212 1.9112047 0.14716873 76 9
-2.037477 1.8933405 0.24333882 81 10
-2.0526152 1.9087434 0.34415907 76 11
-2.0348406 1.8928769 -0.34123421 70 4
-2.0375679 1.8960773 0.44083238 71 12
-2.0157349 1.8757606 -0.24089848 90 5
-2.03192 1.8914833 0.53960788 79 13
-2.0360832 1.8960222 -0.14580798 82 6
-2.0476129 1.9074261 0.64605945 70 14
-2.0379043 1.8990465 -0.048622403 83 7
-2.0461645 1.9074112 0.74953997 71 15
-2.0127795 1.8808922 -0.73815197 91 0
